ply
format ascii 1.0
comment PCL generated
element vertex 1795
property float x
property float y
property float z
element face 0
element camera 0
property float view_px
property float view_py
property float view_pz
property float x_axisx
property float x_axisy
property float x_axisz
property float y_axisx
property float y_axisy
property float y_axisz
property float z_axisx
property float z_axisy
property float z_axisz
property float focal
property float scalex
property float scaley
property float centerx
property float centery
property int viewportx
property int viewporty
property float k1
property float k2
end_header
3.5710001 0.27599999 -0.13600001
3.5680001 0.28 -0.14
3.5739999 0.28200001 -0.14
3.5599999 0.28999999 -0.138
3.5704999 0.2915 -0.13850001
3.575 0.294 -0.13600001
3.569 0.29899999 -0.14
3.57125 0.29675001 -0.138
3.5599999 0.301 -0.13600001
3.5685 0.30199999 -0.138
3.572 0.30000001 -0.13500001
3.5669999 0.30699998 -0.138
3.572 0.308 -0.13699999
3.575 0.31200001 -0.13500001
3.573 0.31650001 -0.13749999
3.5739999 0.32100001 -0.13699999
3.569 0.32800001 -0.13600001
3.5639999 0.33199999 -0.13699999
3.5715001 0.33149999 -0.13749999
3.576 0.33149999 -0.13800001
3.569 0.33700001 -0.13500001
3.5769999 0.33899999 -0.13699999
3.5734999 0.3425 -0.13699999
3.576 0.34099999 -0.139
3.5680001 0.34799999 -0.13699999
3.573 0.347 -0.13699999
3.576 0.34599999 -0.13600001
3.572 0.35249999 -0.138
3.575 0.354 -0.13600001
3.569 0.35699999 -0.14
3.5725 0.35600001 -0.13850001
3.576 0.35750002 -0.13800001
3.5680001 0.36199999 -0.138
3.576 0.36500001 -0.13600001
3.576 0.37400001 -0.14
3.5715001 0.37699997 -0.1365
3.5764999 0.377 -0.13800001
3.5765002 0.38150001 -0.13699999
3.569 0.38600001 -0.139
3.5719998 0.38699999 -0.13766666
3.5650001 0.39300001 -0.13600001
3.5714998 0.39249998 -0.138
3.5739999 0.39700001 -0.13699999
3.576 0.396 -0.13500001
3.573 0.40200001 -0.138
3.5699999 0.40599999 -0.13500001
3.576 0.405 -0.138
3.573 0.414 -0.13600001
3.576 0.414 -0.13699999
3.5739999 0.41600001 -0.13699999
3.575 0.41600001 -0.138
3.5726669 0.42166665 -0.13733333
3.573 0.42799997 -0.1365
3.5769999 0.42699999 -0.138
3.5799999 0.426 -0.139
3.573 0.43000001 -0.13500001
3.5780001 0.43099999 -0.138
3.5719998 0.43633333 -0.13766666
3.576 0.43700001 -0.138
3.572 0.44 -0.138
3.5769999 0.44099998 -0.13833334
3.572 0.44499999 -0.14
3.5764999 0.44800001 -0.13550001
3.5739999 0.45100001 -0.139
3.575 0.454 -0.14
3.5799999 0.454 -0.13500001
3.5739999 0.46000001 -0.138
3.5769999 0.46275002 -0.13749999
3.582 0.46200001 -0.13800001
3.573 0.46799999 -0.13500001
3.5780001 0.46799999 -0.138
3.5815001 0.46700001 -0.13600001
3.5739999 0.47400001 -0.13500001
3.5780001 0.47350001 -0.1375
3.5780001 0.47549999 -0.139
3.5785 0.48199999 -0.1365
3.5815001 0.47999999 -0.13699999
3.5770001 0.48750001 -0.13850001
3.5780001 0.493 -0.13600001
3.5725 0.49849999 -0.13699999
3.5699999 0.5 -0.13600001
3.576 0.50099999 -0.138
3.575 0.50599998 -0.139
3.5799999 0.509 -0.139
3.5770001 0.514 -0.13600001
3.5810001 0.50999999 -0.13699999
3.585 0.51300001 -0.138
3.5969999 0.51700002 -0.139
3.5220001 -0.79900002 -0.134
3.5250001 -0.79900002 -0.131
3.5209999 -0.79299998 -0.131
3.523 -0.79000002 -0.133
3.5190001 -0.78299999 -0.131
3.523 -0.78500003 -0.131
3.5190001 -0.778 -0.132
3.5250001 -0.77600002 -0.131
3.526 -0.77200001 -0.131
3.5209999 -0.76999998 -0.132
3.523 -0.764 -0.131
3.5215001 -0.75800002 -0.133
3.523 -0.75300002 -0.132
3.523 -0.75 -0.134
3.5255001 -0.7475 -0.13150001
3.53 -0.74800003 -0.133
3.5223999 -0.73900002 -0.1332
3.5250001 -0.73100001 -0.134
3.5275002 -0.727 -0.13350001
3.5219998 -0.722 -0.13249999
3.5265999 -0.72299999 -0.1322
3.5225 -0.71850002 -0.131
3.5255001 -0.71700001 -0.13350001
3.523 -0.71100003 -0.133
3.527 -0.71399999 -0.134
3.523 -0.70599997 -0.134
3.5304999 -0.70749998 -0.13150001
3.53 -0.70300001 -0.134
3.5280001 -0.69449997 -0.133
3.527 -0.68900001 -0.131
3.533 -0.68800002 -0.131
3.526 -0.68199998 -0.133
3.5209999 -0.676 -0.132
3.5309999 -0.68000001 -0.134
3.5280001 -0.67299998 -0.132
3.5309999 -0.66600001 -0.134
3.526 -0.66299999 -0.13150001
3.53 -0.66399997 -0.131
3.5320003 -0.65733331 -0.13333334
3.5320001 -0.65499997 -0.132
3.5369999 -0.64899999 -0.134
3.5316668 -0.64133334 -0.13166666
3.5350001 -0.64099997 -0.134
3.5239999 -0.63800001 -0.134
3.5310001 -0.63700002 -0.13150001
3.536 -0.63599998 -0.134
3.527 -0.63200003 -0.13249999
3.533 -0.63300002 -0.132
3.536 -0.634 -0.132
3.527 -0.62699997 -0.132
3.533 -0.62199998 -0.132
3.527 -0.61799997 -0.134
3.53 -0.61900002 -0.131
3.5350001 -0.62 -0.132
3.5339999 -0.61150002 -0.13249999
3.5275002 -0.60350001 -0.13249999
3.5350001 -0.60000002 -0.133
3.533 -0.59600002 -0.134
3.536 -0.597 -0.134
3.5309999 -0.59399998 -0.133
3.527 -0.58600003 -0.132
3.5320001 -0.58899999 -0.132
3.5320001 -0.583 -0.134
3.533 -0.579 -0.134
3.5370002 -0.57700002 -0.13249999
3.5324998 -0.57249999 -0.133
3.5369999 -0.57499999 -0.131
3.5325 -0.56400001 -0.13350001
3.5339999 -0.55900002 -0.132
3.536 -0.55699998 -0.133
3.5320001 -0.551 -0.131
3.5350001 -0.55199999 -0.134
3.5280001 -0.546 -0.131
3.5320001 -0.54699999 -0.131
3.536 -0.55000001 -0.132
3.5279999 -0.54299998 -0.133
3.529 -0.53600001 -0.134
3.5309999 -0.53799999 -0.131
3.5365 -0.537 -0.132
3.5324998 -0.53100002 -0.132
3.5385001 -0.528 -0.132
3.5335 -0.5165 -0.13249999
3.529 -0.51499999 -0.131
3.5320001 -0.51200002 -0.133
3.5350001 -0.514 -0.133
3.536 -0.50700003 -0.134
3.523 -0.50199997 -0.132
3.533 -0.50099999 -0.132
3.5320001 -0.498 -0.13249999
3.5386667 -0.49166664 -0.133
3.529 -0.48699999 -0.132
3.539 -0.48300001 -0.133
3.5320001 -0.47799999 -0.13249999
3.5369999 -0.477 -0.132
3.5369999 -0.47400001 -0.133
3.5380001 -0.46850002 -0.13249999
3.5280001 -0.461 -0.131
3.523 -0.456 -0.131
3.5339999 -0.458 -0.133
3.539 -0.45699999 -0.131
3.5265002 -0.45249999 -0.132
3.53 -0.44600001 -0.134
3.536 -0.44600001 -0.131
3.529 -0.44299999 -0.132
3.5374999 -0.4445 -0.13249999
3.5339999 -0.43399999 -0.131
3.533 -0.42899999 -0.13249999
3.5374999 -0.43000001 -0.132
3.526 -0.417 -0.132
3.5320001 -0.41850001 -0.13350001
3.526 -0.41299999 -0.133
3.5369999 -0.41499999 -0.131
3.5365 -0.4075 -0.133
3.54 -0.40700001 -0.132
3.5309999 -0.40200001 -0.132
3.5339999 -0.39899999 -0.133
3.539 -0.39700001 -0.134
3.5373333 -0.39333332 -0.13233332
3.539 -0.38699999 -0.133
3.527 -0.38100001 -0.134
3.536 -0.38499999 -0.131
3.533 -0.37799999 -0.131
3.536 -0.38 -0.134
3.536 -0.3725 -0.13150001
3.5339999 -0.368 -0.133
3.5420001 -0.36899999 -0.131
3.5380001 -0.36299998 -0.133
3.5280001 -0.35699999 -0.132
3.5339999 -0.35699999 -0.132
3.54 -0.359 -0.134
3.5439999 -0.35100001 -0.131
3.546 -0.34900001 -0.133
3.5350001 -0.34299999 -0.132
3.543 -0.34400001 -0.134
3.5409999 -0.33500001 -0.13249999
3.5369999 -0.32800001 -0.134
3.543 -0.3265 -0.13150001
3.543 -0.324 -0.133
3.5455 -0.31799999 -0.133
3.5419998 -0.31300002 -0.13150001
3.5450001 -0.30899999 -0.133
3.5469999 -0.30400002 -0.13249999
3.546 -0.29899999 -0.133
3.5409999 -0.29499999 -0.131
3.5469999 -0.292 -0.131
3.5425 -0.28350002 -0.13150001
3.5460002 -0.28400001 -0.13166668
3.5439999 -0.28 -0.133
3.5469999 -0.278 -0.133
3.54 -0.271 -0.131
3.5455 -0.27250001 -0.13350001
3.5439999 -0.26699999 -0.131
3.5469999 -0.266 -0.133
3.546 -0.26249999 -0.13350001
3.5420001 -0.257 -0.132
3.546 -0.25800002 -0.13350001
3.546 -0.25400001 -0.133
3.5380001 -0.25 -0.132
3.5465002 -0.243 -0.133
3.5420001 -0.236 -0.131
3.5480001 -0.23466666 -0.13266666
3.549 -0.229 -0.13249999
3.552 -0.2225 -0.13249999
3.5420001 -0.21600001 -0.134
3.549 -0.21799999 -0.132
3.5475001 -0.211 -0.13150001
3.55 -0.20999999 -0.134
3.5479999 -0.20100001 -0.131
3.5409999 -0.2 -0.132
3.5465 -0.19850001 -0.13249999
3.55 -0.2 -0.131
3.5425 -0.19499999 -0.133
3.543 -0.19 -0.133
3.543 -0.185 -0.132
3.5465002 -0.184 -0.132
3.5439999 -0.18000001 -0.132
3.5450001 -0.1785 -0.13350001
3.5439999 -0.171 -0.131
3.5465 -0.1715 -0.133
3.5439999 -0.167 -0.133
3.549 -0.167 -0.134
3.549 -0.163 -0.132
3.54 -0.15899999 -0.132
3.5479999 -0.1585 -0.13249999
3.5425 -0.152 -0.132
3.5480001 -0.154 -0.134
3.55 -0.154 -0.132
3.5425 -0.147 -0.13249999
3.546 -0.141 -0.133
3.552 -0.14300001 -0.134
3.5420001 -0.13699999 -0.131
3.5469999 -0.133 -0.133
3.5469999 -0.12799999 -0.13150001
3.5465 -0.124 -0.13350001
3.5450001 -0.117 -0.131
3.5525 -0.117 -0.132
3.5450001 -0.111 -0.134
3.552 -0.114 -0.131
3.552 -0.109 -0.132
3.5469999 -0.103 -0.133
3.5469999 -0.099333338 -0.13233334
3.552 -0.1 -0.134
3.5550001 -0.096000001 -0.133
3.546 -0.093999997 -0.133
3.55 -0.090000004 -0.133
3.5550001 -0.086000003 -0.131
3.552 -0.083999999 -0.133
3.5550001 -0.083999999 -0.134
3.546 -0.075000003 -0.131
3.5539999 -0.075000003 -0.134
3.5585001 -0.078500003 -0.13249999
3.546 -0.071999997 -0.133
3.5539999 -0.072500005 -0.132
3.5550001 -0.071000002 -0.131
3.552 -0.067000002 -0.132
3.5580001 -0.068999998 -0.131
3.552 -0.064999998 -0.131
3.5550001 -0.064000003 -0.133
3.5539999 -0.059999999 -0.133
3.5555 -0.058499999 -0.133
3.559 -0.054000001 -0.134
3.5539999 -0.046999998 -0.132
3.5599999 -0.050000001 -0.134
3.5539999 -0.044 -0.132
3.5599999 -0.042000003 -0.134
3.5539999 -0.037999999 -0.133
3.5569999 -0.035999998 -0.131
3.553 -0.035 -0.134
3.556 -0.032666668 -0.13133334
3.552 -0.027000001 -0.131
3.5569999 -0.026500002 -0.133
3.553 -0.021 -0.134
3.5565 -0.017000001 -0.13249999
3.556 -0.0125 -0.13249999
3.553 -0.0089999996 -0.134
3.5550001 -0.0099999998 -0.134
3.553 -0.003 -0.133
3.5550001 0.00050000002 -0.13275
3.562 0.003 -0.131
3.553 0.0080000004 -0.131
3.5579998 0.0080000004 -0.13333334
3.562 0.0089999996 -0.131
3.5510001 0.011 -0.131
3.5580001 0.013 -0.134
3.562 0.014 -0.133
3.5580001 0.0165 -0.13249999
3.5599999 0.018999999 -0.131
3.5580001 0.020500001 -0.13350001
3.5639999 0.023 -0.133
3.5610001 0.027000001 -0.133
3.5580001 0.033 -0.133
3.5610001 0.034000002 -0.132
3.5580001 0.037999999 -0.134
3.5580001 0.041000001 -0.13350001
3.5610001 0.039999999 -0.131
3.5539999 0.048 -0.132
3.5570002 0.047499999 -0.133
3.5610001 0.046500001 -0.13150001
3.5539999 0.050999999 -0.134
3.5569999 0.052000001 -0.131
3.563 0.050000001 -0.131
3.553 0.055 -0.133
3.556 0.055 -0.131
3.556 0.060999997 -0.133
3.556 0.067500003 -0.132
3.552 0.071999997 -0.134
3.5565 0.071999997 -0.13350001
3.5550001 0.078000002 -0.132
3.5539999 0.082000002 -0.131
3.5570002 0.083499998 -0.134
3.5650001 0.088 -0.133
3.5566666 0.090999998 -0.13266666
3.552 0.097999997 -0.132
3.5583334 0.097666658 -0.133
3.5639999 0.096000001 -0.134
3.5583334 0.10333333 -0.13233334
3.5610001 0.1075 -0.133
3.556 0.112 -0.134
3.5585001 0.1175 -0.133
3.559 0.123 -0.133
3.5625 0.121 -0.132
3.5539999 0.126 -0.133
3.566 0.127 -0.133
3.5539999 0.133 -0.132
3.5585001 0.133 -0.13150001
3.5599999 0.133 -0.133
3.553 0.139 -0.133
3.5569999 0.13500001 -0.131
3.5650001 0.13699999 -0.131
3.5569999 0.14399999 -0.132
3.5610001 0.14 -0.131
3.553 0.15099999 -0.133
3.5569999 0.154 -0.134
3.562 0.15000001 -0.131
3.5580001 0.156 -0.132
3.5610001 0.15700001 -0.134
3.5650001 0.16 -0.132
3.5539999 0.167 -0.134
3.5580001 0.169 -0.131
3.5610001 0.16500001 -0.134
3.563 0.17299999 -0.131
3.5650001 0.17 -0.132
3.5539999 0.175 -0.132
3.5625 0.177 -0.13350001
3.5580001 0.18200001 -0.13249999
3.562 0.184 -0.132
3.5710001 0.184 -0.134
3.5550001 0.18700001 -0.131
3.5639999 0.18799999 -0.134
3.562 0.191 -0.132
3.559 0.198 -0.134
3.563 0.199 -0.134
3.5655 0.20300001 -0.13249999
3.5710001 0.20200001 -0.133
3.5539999 0.208 -0.133
3.566 0.20900001 -0.133
3.563 0.21250001 -0.13249999
3.556 0.2165 -0.132
3.5675001 0.21599999 -0.13249999
3.566 0.2225 -0.13249999
3.5699999 0.223 -0.131
3.5650001 0.228 -0.131
3.5710001 0.227 -0.132
3.5669999 0.23050001 -0.13249999
3.5569999 0.235 -0.133
3.5639999 0.24133332 -0.13233332
3.569 0.242 -0.131
3.5699999 0.241 -0.134
3.5639999 0.245 -0.131
3.5539999 0.252 -0.134
3.5639999 0.252 -0.132
3.5570002 0.257 -0.13150001
3.5650001 0.25600001 -0.132
3.5680001 0.264 -0.133
3.572 0.26099998 -0.132
3.562 0.26699999 -0.131
3.5685 0.26699999 -0.13249999
3.559 0.27000001 -0.133
3.5680001 0.27200001 -0.132
3.5699999 0.273 -0.132
3.569 0.28200001 -0.134
3.5710001 0.28200001 -0.131
3.5625 0.28600001 -0.132
3.566 0.285 -0.133
3.5710001 0.28600001 -0.132
3.5709999 0.29333332 -0.134
3.5650001 0.29899999 -0.132
3.5710001 0.29800001 -0.133
3.569 0.301 -0.132
3.5716667 0.30166668 -0.13366668
3.569 0.30899999 -0.133
3.5739999 0.30599999 -0.132
3.575 0.30899999 -0.131
3.5739999 0.31 -0.132
3.576 0.31099999 -0.131
3.5665002 0.31600001 -0.133
3.5669999 0.32100001 -0.134
3.5722001 0.32699999 -0.13239999
3.575 0.32600001 -0.131
3.569 0.33199999 -0.131
3.573 0.336 -0.132
3.576 0.33899999 -0.131
3.563 0.34299999 -0.133
3.579 0.34299999 -0.133
3.5739999 0.34600002 -0.13350001
3.575 0.345 -0.132
3.5710001 0.352 -0.131
3.5785 0.35049999 -0.13249999
3.569 0.35800001 -0.134
3.573 0.35750002 -0.13249999
3.5725 0.36750001 -0.13150001
3.5769999 0.36899999 -0.133
3.5726669 0.37166667 -0.133
3.572 0.375 -0.131
3.572 0.38299999 -0.134
3.5755 0.38100001 -0.133
3.5699999 0.38600001 -0.132
3.5757499 0.38725001 -0.13325
3.5739999 0.3935 -0.132
3.5769999 0.39399999 -0.132
3.572 0.396 -0.131
3.5669999 0.403 -0.132
3.5739999 0.40400001 -0.133
3.573 0.40900001 -0.132
3.576 0.40900001 -0.131
3.5716667 0.41166666 -0.13233332
3.5699999 0.41499999 -0.133
3.575 0.417 -0.131
3.569 0.41999999 -0.132
3.5739999 0.42199999 -0.131
3.5769999 0.41999999 -0.132
3.579 0.426 -0.133
3.5799999 0.42899999 -0.133
3.5715001 0.43199998 -0.13249999
3.575 0.43000001 -0.134
3.582 0.43399999 -0.134
3.572 0.43700001 -0.132
3.5769999 0.4425 -0.13249999
3.576 0.454 -0.132
3.5799999 0.45249999 -0.133
3.5799999 0.4585 -0.132
3.5799999 0.46200001 -0.133
3.5770001 0.46649998 -0.132
3.582 0.46700001 -0.134
3.5734999 0.47149998 -0.133
3.5780001 0.47299999 -0.134
3.5799999 0.47 -0.134
3.579 0.47749999 -0.132
3.5805001 0.48250002 -0.132
3.573 0.49200001 -0.133
3.5763333 0.493 -0.13266666
3.5699999 0.49599999 -0.133
3.5799999 0.49700001 -0.13200001
3.5734999 0.50150001 -0.13150001
3.5699999 0.509 -0.131
3.5869999 0.50599998 -0.133
3.573 0.51200002 -0.134
3.5910001 0.51200002 -0.133
3.523 -0.79799998 -0.12899999
3.526 -0.79900002 -0.126
3.516 -0.79500002 -0.12899999
3.5215001 -0.79299998 -0.1285
3.5220001 -0.78600001 -0.12800001
3.523 -0.78500003 -0.126
3.523 -0.77849996 -0.12650001
3.5250001 -0.77999997 -0.13
3.523 -0.77100003 -0.126
3.52 -0.76800001 -0.127
3.526 -0.76899999 -0.12900001
3.523 -0.76499999 -0.13
3.5235 -0.75999999 -0.1275
3.529 -0.75700003 -0.13
3.5220001 -0.75400001 -0.12800001
3.5250001 -0.75300002 -0.12899999
3.53 -0.75300002 -0.127
3.52 -0.75 -0.13
3.5216668 -0.74400002 -0.12899999
3.5285001 -0.74199998 -0.127
3.5239999 -0.7385 -0.1275
3.527 -0.73750001 -0.1275
3.5280001 -0.73500001 -0.12800001
3.5225 -0.72850001 -0.1285
3.5280001 -0.72899997 -0.126
3.523 -0.72100002 -0.12800001
3.5255001 -0.72299999 -0.12699999
3.5220001 -0.71499997 -0.127
3.5275002 -0.713 -0.1285
3.5235 -0.70799994 -0.1295
3.5265002 -0.708 -0.127
3.5280001 -0.70166665 -0.12900001
3.5320001 -0.69599998 -0.127
3.5209999 -0.69499999 -0.126
3.526 -0.69099998 -0.13
3.527 -0.68599999 -0.12800001
3.5320001 -0.68699998 -0.126
3.5280001 -0.68199998 -0.127
3.53 -0.68199998 -0.12899999
3.5220001 -0.67900002 -0.127
3.529 -0.67699999 -0.12800001
3.53 -0.67199999 -0.12800001
3.523 -0.667 -0.1275
3.529 -0.66500002 -0.13
3.5324998 -0.66350001 -0.1285
3.5285001 -0.65700001 -0.1275
3.5304999 -0.65799999 -0.12800001
3.5265002 -0.65200001 -0.12650001
3.5323334 -0.65366668 -0.12866665
3.5239999 -0.64300001 -0.12899999
3.5320003 -0.64233333 -0.12833333
3.5350001 -0.64499998 -0.126
3.5320001 -0.639 -0.126
3.526 -0.63433337 -0.12733333
3.5339999 -0.63099998 -0.127
3.529 -0.62800002 -0.126
3.5320001 -0.62699997 -0.12899999
3.527 -0.62400001 -0.12899999
3.5324998 -0.62400001 -0.12799999
3.5309999 -0.61849999 -0.127
3.5350001 -0.61799997 -0.13
3.5369999 -0.61199999 -0.127
3.5320001 -0.60799998 -0.126
3.526 -0.602 -0.13
3.5309999 -0.60299999 -0.127
3.5355 -0.60399997 -0.12799999
3.5220001 -0.59500003 -0.126
3.5339999 -0.59899998 -0.12899999
3.5320001 -0.59200001 -0.12800001
3.5380001 -0.59399998 -0.12800001
3.5350001 -0.58899999 -0.127
3.5239999 -0.58200002 -0.126
3.5280001 -0.58099997 -0.127
3.54 -0.58149999 -0.12900001
3.5275002 -0.57799995 -0.13
3.536 -0.57800001 -0.12800001
3.533 -0.57300001 -0.12900001
3.536 -0.57249999 -0.1275
3.527 -0.56699997 -0.12899999
3.5326664 -0.56933331 -0.12800001
3.5280001 -0.55800003 -0.12800001
3.5323997 -0.55739993 -0.1288
3.533 -0.55400002 -0.12899999
3.529 -0.5485 -0.12799999
3.5320001 -0.54699999 -0.126
3.5350001 -0.54750001 -0.12799999
3.53 -0.54000002 -0.126
3.5350001 -0.54000002 -0.12899999
3.5239999 -0.53799999 -0.12899999
3.533 -0.53799999 -0.1295
3.5365 -0.53550005 -0.12650001
3.5324998 -0.53250003 -0.12799999
3.53 -0.528 -0.126
3.533 -0.52100003 -0.127
3.5220001 -0.51800001 -0.13
3.529 -0.51999998 -0.13
3.5409999 -0.51599997 -0.12899999
3.533 -0.51200002 -0.126
3.5309999 -0.50999999 -0.127
3.53 -0.505 -0.12800001
3.529 -0.49599999 -0.126
3.533 -0.49700001 -0.127
3.5239999 -0.491 -0.12899999
3.5324998 -0.49449998 -0.1285
3.5370002 -0.49150002 -0.12799999
3.53125 -0.4885 -0.1285
3.543 -0.48899999 -0.126
3.5280001 -0.48199999 -0.12899999
3.533 -0.48300001 -0.127
3.5350001 -0.47600001 -0.12800001
3.529 -0.472 -0.12800001
3.5313332 -0.47433332 -0.12833333
3.5355 -0.47350001 -0.127
3.53 -0.46599999 -0.13
3.5304999 -0.46399999 -0.12899999
3.529 -0.45899999 -0.13
3.5320001 -0.46000001 -0.126
3.5280004 -0.4526 -0.1288
3.533 -0.45249999 -0.1285
3.5369999 -0.447 -0.126
3.5309999 -0.44400001 -0.126
3.5420001 -0.43900001 -0.13
3.5280001 -0.43200001 -0.127
3.53 -0.43200001 -0.13
3.543 -0.433 -0.12899999
3.536 -0.428 -0.127
3.529 -0.417 -0.12800001
3.5320001 -0.414 -0.126
3.5380001 -0.41299999 -0.127
3.5320001 -0.40850002 -0.12900001
3.536 -0.40866664 -0.12800001
3.5409999 -0.40900001 -0.12800001
3.5280001 -0.40200001 -0.13
3.5320001 -0.40400001 -0.12800001
3.5380001 -0.405 -0.126
3.5339999 -0.39899999 -0.12899999
3.5380001 -0.39700001 -0.13
3.533 -0.39500001 -0.127
3.5370002 -0.39199999 -0.1285
3.5409999 -0.39399999 -0.12800001
3.5339999 -0.38999999 -0.126
3.5370002 -0.389 -0.127
3.5339999 -0.38299999 -0.13
3.5370002 -0.38150001 -0.12800001
3.5314999 -0.37349999 -0.1285
3.536 -0.373 -0.13
3.5420001 -0.37200001 -0.12899999
3.5469999 -0.37200001 -0.12800001
3.5380001 -0.36966667 -0.12833333
3.5380001 -0.36399999 -0.13
3.5409999 -0.36449999 -0.127
3.53 -0.35800001 -0.126
3.539 -0.35600001 -0.12899999
3.539 -0.35100001 -0.12899999
3.5350001 -0.34799999 -0.12800001
3.5433333 -0.34866667 -0.12866665
3.536 -0.333 -0.12899999
3.5439999 -0.33200002 -0.12900001
3.546 -0.333 -0.126
3.5409999 -0.32800001 -0.12899999
3.5453331 -0.32733333 -0.12800001
3.5434999 -0.324 -0.127
3.5450001 -0.32499999 -0.126
3.5420001 -0.31849998 -0.12900001
3.5450001 -0.31600001 -0.12899999
3.5420001 -0.315 -0.12899999
3.5455 -0.31150001 -0.127
3.5415001 -0.3075 -0.12650001
3.5450001 -0.31 -0.13
3.5455 -0.3035 -0.1275
3.546 -0.2985 -0.1285
3.55 -0.292 -0.13
3.5434999 -0.28799999 -0.12799999
3.546 -0.28839999 -0.12899999
3.55 -0.28999999 -0.127
3.546 -0.28200001 -0.126
3.546 -0.28 -0.127
3.5439999 -0.27200001 -0.127
3.5480001 -0.27399999 -0.13
3.55 -0.27000001 -0.12800001
3.543 -0.26800001 -0.12899999
3.5469999 -0.26699999 -0.12899999
3.5439999 -0.26100001 -0.12899999
3.5480001 -0.264 -0.127
3.546 -0.252 -0.12899999
3.5463333 -0.24699999 -0.12833333
3.55 -0.24600001 -0.12800001
3.5409999 -0.242 -0.13
3.5480001 -0.245 -0.13
3.55 -0.24349999 -0.126
3.5409999 -0.237 -0.12800001
3.5450001 -0.23999999 -0.127
3.5476668 -0.23233335 -0.12900001
3.5510001 -0.23100001 -0.13
3.549 -0.229 -0.12800001
3.552 -0.229 -0.13
3.543 -0.22150001 -0.127
3.5469999 -0.223 -0.127
3.549 -0.219 -0.126
3.5463333 -0.21366668 -0.12700002
3.5469999 -0.207 -0.126
3.553 -0.2085 -0.12799999
3.5409999 -0.204 -0.12899999
3.5466664 -0.20299999 -0.12899999
3.5513332 -0.20299999 -0.12800001
3.5439999 -0.192 -0.13
3.553 -0.193 -0.12650001
3.5439999 -0.18799999 -0.127
3.5480001 -0.186 -0.12899999
3.55 -0.186 -0.12800001
3.5439999 -0.182 -0.127
3.5469999 -0.185 -0.12800001
3.5450001 -0.176 -0.12899999
3.5480001 -0.169 -0.12800001
3.5510001 -0.167 -0.12800001
3.5439999 -0.16350001 -0.12799999
3.549 -0.16500001 -0.127
3.543 -0.15833332 -0.12899999
3.552 -0.16 -0.127
3.5420001 -0.15000001 -0.12899999
3.5475001 -0.15149999 -0.1295
3.55 -0.153 -0.127
3.543 -0.146 -0.13
3.5480001 -0.1485 -0.12900001
3.539 -0.145 -0.12800001
3.5450001 -0.13699999 -0.126
3.55 -0.13699999 -0.12899999
3.5480001 -0.132 -0.12800001
3.5485001 -0.12799999 -0.12650001
3.553 -0.12800001 -0.12800001
3.5483334 -0.12333333 -0.12866667
3.546 -0.1195 -0.12899999
3.5504999 -0.119 -0.1285
3.5550001 -0.116 -0.12899999
3.5510001 -0.111 -0.126
3.5550001 -0.115 -0.12899999
3.5513334 -0.108 -0.12733333
3.5480001 -0.105 -0.12899999
3.552 -0.102 -0.1275
3.5475001 -0.1 -0.12900001
3.5550001 -0.088500001 -0.1285
3.5539999 -0.082999997 -0.127
3.5563335 -0.082666665 -0.12800001
3.553 -0.078500003 -0.1285
3.55 -0.071999997 -0.126
3.5580001 -0.071000002 -0.127
3.549 -0.068999998 -0.12899999
3.55 -0.068000004 -0.13
3.556 -0.067666672 -0.12766667
3.5510001 -0.063000001 -0.13
3.5550001 -0.059 -0.12800001
3.5469999 -0.052999999 -0.12899999
3.5555 -0.053000003 -0.12799999
3.553 -0.050000001 -0.126
3.5573332 -0.047000002 -0.12733334
3.556 -0.042999998 -0.12900001
3.5539999 -0.036499999 -0.1295
3.556 -0.038666666 -0.12766667
3.5599999 -0.035999998 -0.13
3.5565 -0.028999999 -0.12825
3.5569999 -0.021499999 -0.12724999
3.553 -0.017000001 -0.13
3.5580001 -0.018999999 -0.12800001
3.5550001 -0.014 -0.1295
3.556 -0.0060000001 -0.126
3.5550001 -0.0035000001 -0.12900001
3.5599999 -0.001 -0.126
3.5562501 0.00125 -0.12725
3.562 0 -0.12899999
3.556 0.0049999999 -0.126
3.5581431 0.012571429 -0.12828572
3.5599999 0.0099999998 -0.126
3.5539999 0.028000001 -0.12899999
3.5580001 0.026000001 -0.12800001
3.5599999 0.028999999 -0.13
3.5580001 0.034000002 -0.126
3.55775 0.035749998 -0.12675001
3.5599999 0.044 -0.1285
3.5580001 0.045500003 -0.12800001
3.5599999 0.047499999 -0.13
3.5599999 0.052999999 -0.127
3.5480001 0.056000002 -0.127
3.552 0.056499999 -0.13
3.556 0.059 -0.126
3.5599999 0.059 -0.13
3.556 0.063000001 -0.12899999
3.5610001 0.0625 -0.12799999
3.5525 0.071500003 -0.12899999
3.556 0.075000003 -0.126
3.5599999 0.078000002 -0.12899999
3.5579998 0.082333334 -0.12833333
3.562 0.081 -0.127
3.553 0.086000003 -0.13
3.5570002 0.085000001 -0.12900001
3.5539999 0.093999997 -0.126
3.5574999 0.093249992 -0.12725002
3.563 0.092 -0.13
3.5539999 0.098999999 -0.12899999
3.559 0.097000003 -0.12899999
3.5599999 0.097999997 -0.13
3.5610001 0.102 -0.126
3.5569999 0.109 -0.12899999
3.5539999 0.113 -0.13
3.556 0.112 -0.127
3.5539999 0.119 -0.127
3.5580001 0.119 -0.12899999
3.5639999 0.117 -0.126
3.5539999 0.12 -0.126
3.5550001 0.12 -0.127
3.5539999 0.12800001 -0.12800001
3.5569999 0.126 -0.12800001
3.562 0.126 -0.12800001
3.5533333 0.132 -0.12933333
3.5669999 0.132 -0.13
3.5615001 0.13600001 -0.12650001
3.5569999 0.14266667 -0.12866665
3.5599999 0.145 -0.126
3.5655 0.1455 -0.13
3.553 0.15800001 -0.13
3.563 0.15899999 -0.12899999
3.5573337 0.162 -0.12866667
3.5610001 0.164 -0.126
3.5616667 0.16633333 -0.12866667
3.562 0.1735 -0.1295
3.5580001 0.17750001 -0.12650001
3.5622499 0.17650001 -0.12825
3.553 0.182 -0.13
3.5619998 0.18349999 -0.1275
3.562 0.192 -0.12800001
3.563 0.198 -0.13
3.5636666 0.20200001 -0.12800001
3.562 0.20666666 -0.12766667
3.5650001 0.207 -0.12800001
3.559 0.212 -0.12800001
3.5699999 0.214 -0.12899999
3.5569999 0.215 -0.126
3.5634999 0.21849999 -0.1295
3.5680001 0.21699999 -0.12800001
3.562 0.22 -0.126
3.5699999 0.22 -0.13
3.5610001 0.229 -0.126
3.5669999 0.228 -0.1295
3.5605001 0.23100001 -0.12799999
3.563 0.24600001 -0.12800001
3.5673335 0.24766666 -0.12800001
3.5710001 0.24600001 -0.12900001
3.5669999 0.25 -0.12899999
3.5639999 0.259 -0.126
3.5680001 0.25733334 -0.12866665
3.563 0.26099998 -0.1275
3.5669999 0.26499999 -0.127
3.5650001 0.26800001 -0.12899999
3.5699999 0.26699999 -0.127
3.569 0.27399999 -0.12800001
3.572 0.273 -0.126
3.573 0.28200001 -0.126
3.5669999 0.28799999 -0.127
3.5704999 0.28549999 -0.126
3.5657501 0.29175001 -0.12774999
3.569 0.29800001 -0.12800001
3.572 0.29699999 -0.12899999
3.569 0.303 -0.13
3.5734999 0.301 -0.1285
3.5770001 0.30150002 -0.1285
3.572 0.308 -0.1285
3.5739999 0.31200001 -0.126
3.5780001 0.31299999 -0.12899999
3.563 0.31799999 -0.12800001
3.5680001 0.315 -0.127
3.5710001 0.317 -0.126
3.575 0.315 -0.13
3.5780001 0.322 -0.126
3.572 0.329 -0.126
3.575 0.329 -0.12899999
3.569 0.333 -0.12800001
3.573 0.333 -0.13
3.575 0.33199999 -0.12800001
3.575 0.33899999 -0.12899999
3.5739999 0.34200001 -0.12899999
3.5769999 0.34200001 -0.12800001
3.5799999 0.34299999 -0.126
3.5680001 0.347 -0.12899999
3.5675001 0.35249999 -0.1285
3.576 0.34999999 -0.12800001
3.5739999 0.35600001 -0.127
3.5780001 0.35800001 -0.12800001
3.5769999 0.36500001 -0.127
3.569 0.373 -0.126
3.572 0.37 -0.126
3.5756667 0.37333333 -0.12699999
3.5739999 0.375 -0.126
3.5716667 0.38299999 -0.12900001
3.5774999 0.38050002 -0.1275
3.5699999 0.389 -0.13
3.5760002 0.38566664 -0.12866665
3.572 0.39399999 -0.13
3.575 0.39199999 -0.127
3.5739999 0.39500001 -0.12899999
3.5769999 0.39649999 -0.1285
3.573 0.40099999 -0.12800001
3.572 0.40599999 -0.1275
3.575 0.405 -0.126
3.575 0.41249999 -0.12799999
3.572 0.41499999 -0.12800001
3.5780001 0.41600001 -0.13
3.5734999 0.42199999 -0.1275
3.5829999 0.42399999 -0.12899999
3.5739999 0.42500001 -0.13
3.576 0.42699999 -0.126
3.575 0.433 -0.12899999
3.5714998 0.43900001 -0.1285
3.5766668 0.43733335 -0.12766667
3.579 0.442 -0.12800001
3.5769999 0.44800001 -0.12800001
3.572 0.456 -0.127
3.575 0.45500001 -0.127
3.582 0.45899999 -0.12800001
3.5799999 0.46200001 -0.12650001
3.575 0.46799999 -0.1275
3.5810001 0.465 -0.12899999
3.5739999 0.47 -0.1285
3.5780001 0.47 -0.13
3.5799999 0.47 -0.13
3.5734999 0.47750002 -0.127
3.5780001 0.47600001 -0.12899999
3.582 0.47750002 -0.1295
3.5785 0.48299998 -0.13
3.5769999 0.486 -0.12899999
3.5829999 0.48899999 -0.126
3.575 0.49399999 -0.12800001
3.5829999 0.49000001 -0.12899999
3.579 0.49700001 -0.126
3.5774999 0.50049996 -0.1285
3.566 0.505 -0.13
3.5783336 0.50700003 -0.12766667
3.5840001 0.51099998 -0.126
3.516 -0.796 -0.124
3.523 -0.79949999 -0.124
3.5209999 -0.79500002 -0.124
3.517 -0.78750002 -0.1215
3.5239999 -0.79000002 -0.123
3.527 -0.79000002 -0.121
3.5190001 -0.78200001 -0.122
3.5250001 -0.78299999 -0.123
3.5190001 -0.778 -0.121
3.52 -0.77999997 -0.125
3.527 -0.778 -0.124
3.5220001 -0.77499998 -0.121
3.5250001 -0.77100003 -0.125
3.523 -0.76700002 -0.125
3.523 -0.76099998 -0.123
3.5280001 -0.764 -0.121
3.5226667 -0.75866669 -0.123
3.5280001 -0.75999999 -0.121
3.5220001 -0.74800003 -0.121
3.533 -0.74900001 -0.123
3.5225 -0.745 -0.123
3.526 -0.745 -0.122
3.5209999 -0.73699999 -0.125
3.529 -0.73900002 -0.122
3.523 -0.73299998 -0.123
3.533 -0.73400003 -0.123
3.527 -0.72600001 -0.123
3.5209999 -0.72299999 -0.125
3.526 -0.72100002 -0.123
3.5255001 -0.71600002 -0.122
3.53 -0.72000003 -0.123
3.52 -0.713 -0.123
3.5283334 -0.713 -0.12366667
3.5239999 -0.70700002 -0.125
3.527 -0.70700002 -0.125
3.5256665 -0.7026667 -0.122
3.5280001 -0.69599998 -0.124
3.5309999 -0.69949996 -0.1215
3.5255001 -0.69300002 -0.123
3.5320001 -0.69400001 -0.123
3.5285001 -0.68699998 -0.1225
3.5280001 -0.68400002 -0.124
3.526 -0.67699999 -0.121
3.5333335 -0.67733335 -0.12333333
3.5280001 -0.67199999 -0.124
3.53 -0.66900003 -0.125
3.5250001 -0.662 -0.121
3.533 -0.66500002 -0.123
3.52 -0.65600002 -0.122
3.5250001 -0.65799999 -0.122
3.5320001 -0.65899998 -0.125
3.529 -0.65100002 -0.125
3.533 -0.653 -0.125
3.5309999 -0.64999998 -0.121
3.5220001 -0.64399999 -0.123
3.5320001 -0.64099997 -0.124
3.5314999 -0.63849998 -0.122
3.5350001 -0.63800001 -0.124
3.5315001 -0.63275003 -0.12275
3.529 -0.62800002 -0.123
3.539 -0.62800002 -0.125
3.529 -0.625 -0.123
3.5350001 -0.6225 -0.124
3.5255001 -0.61849999 -0.125
3.5324998 -0.616 -0.121
3.529 -0.61299998 -0.121
3.5369999 -0.611 -0.121
3.527 -0.61000001 -0.124
3.5320001 -0.60749996 -0.123
3.533 -0.60100001 -0.124
3.536 -0.60399997 -0.122
3.527 -0.59899998 -0.122
3.533 -0.59399998 -0.123
3.5366669 -0.59299999 -0.12233334
3.5339999 -0.58700001 -0.124
3.5320001 -0.58499998 -0.123
3.536 -0.58099997 -0.122
3.5369999 -0.579 -0.121
3.526 -0.57300001 -0.122
3.5314999 -0.574 -0.1245
3.527 -0.56900001 -0.122
3.533 -0.56800002 -0.125
3.5350001 -0.56900001 -0.123
3.53 -0.56300002 -0.124
3.5369999 -0.56199998 -0.125
3.5309999 -0.55699998 -0.124
3.5350001 -0.55800003 -0.123
3.5320001 -0.55500001 -0.123
3.5350001 -0.55449998 -0.1245
3.5320001 -0.55000001 -0.124
3.5374999 -0.54799998 -0.122
3.5220001 -0.54400003 -0.122
3.536 -0.54200006 -0.1225
3.5190001 -0.53899997 -0.123
3.5275002 -0.53849995 -0.123
3.5350001 -0.53600001 -0.124
3.5309999 -0.53299999 -0.124
3.5369999 -0.53399998 -0.121
3.529 -0.52999997 -0.121
3.533 -0.52600002 -0.121
3.5369999 -0.52600002 -0.125
3.5320001 -0.52250004 -0.1225
3.5380001 -0.52100003 -0.121
3.5336666 -0.51866668 -0.12466667
3.529 -0.51099998 -0.122
3.533 -0.51099998 -0.122
3.5369999 -0.509 -0.12133333
3.5409999 -0.50599998 -0.125
3.53 -0.50099999 -0.123
3.536 -0.50300002 -0.122
3.5220001 -0.49599999 -0.125
3.5339999 -0.498 -0.122
3.5320001 -0.49250001 -0.123
3.533 -0.48750001 -0.122
3.5350001 -0.48899999 -0.122
3.5335 -0.4835 -0.123
3.5350001 -0.47799999 -0.125
3.5320001 -0.47299999 -0.1235
3.536 -0.47299999 -0.122
3.5304999 -0.47 -0.1235
3.5369999 -0.46599999 -0.122
3.5280001 -0.465 -0.124
3.5320001 -0.461 -0.122
3.536 -0.46350002 -0.123
3.5324998 -0.45749998 -0.1235
3.536 -0.458 -0.123
3.5280001 -0.45500001 -0.123
3.5335 -0.45249999 -0.124
3.5369999 -0.4515 -0.123
3.533 -0.44600001 -0.1225
3.539 -0.44999999 -0.121
3.5350001 -0.44100001 -0.124
3.53 -0.43799999 -0.122
3.5355 -0.4375 -0.1245
3.5380001 -0.435 -0.123
3.53 -0.42699999 -0.125
3.5374999 -0.42799997 -0.122
3.5310001 -0.42266667 -0.122
3.5320001 -0.417 -0.122
3.536 -0.41600001 -0.125
3.54 -0.41600001 -0.122
3.529 -0.412 -0.125
3.5320001 -0.41299999 -0.125
3.533 -0.40899998 -0.123
3.5323334 -0.40333334 -0.122
3.536 -0.405 -0.125
3.5309999 -0.39899999 -0.125
3.5369999 -0.396 -0.125
3.5309999 -0.39500001 -0.123
3.5380001 -0.39199999 -0.125
3.527 -0.38800001 -0.123
3.5365 -0.38749999 -0.1225
3.5420001 -0.389 -0.124
3.533 -0.384 -0.125
3.5369999 -0.38299999 -0.123
3.543 -0.38299999 -0.123
3.533 -0.38 -0.123
3.5404999 -0.37650001 -0.122
3.533 -0.373 -0.125
3.5385001 -0.3725 -0.123
3.529 -0.36700001 -0.124
3.5380001 -0.37 -0.123
3.5404999 -0.36750001 -0.1215
3.5369999 -0.36399999 -0.121
3.543 -0.36300001 -0.121
3.5339999 -0.359 -0.123
3.5415001 -0.3565 -0.1245
3.536 -0.35299999 -0.122
3.543 -0.35433331 -0.12266666
3.539 -0.347 -0.122
3.5369999 -0.34299999 -0.124
3.5420001 -0.345 -0.122
3.533 -0.338 -0.123
3.5420001 -0.33899999 -0.122
3.5453331 -0.33333334 -0.12266666
3.539 -0.33000001 -0.124
3.5420001 -0.32800001 -0.125
3.5450001 -0.329 -0.125
3.5426667 -0.32300001 -0.12233333
3.546 -0.32100001 -0.122
3.543 -0.31849998 -0.123
3.5439999 -0.315 -0.125
3.546 -0.31099999 -0.124
3.54 -0.31 -0.124
3.5460002 -0.30766666 -0.12333333
3.5423334 -0.30200002 -0.123
3.5510001 -0.30199999 -0.122
3.543 -0.29750001 -0.124
3.5439999 -0.29300001 -0.122
3.5469999 -0.29350001 -0.1215
3.5439999 -0.28799999 -0.124
3.5470002 -0.287 -0.12233333
3.546 -0.28299999 -0.123
3.5450001 -0.27900001 -0.1215
3.5409999 -0.273 -0.125
3.5461664 -0.27183333 -0.12283333
3.5450001 -0.26499999 -0.123
3.5510001 -0.26300001 -0.122
3.539 -0.259 -0.124
3.546 -0.259 -0.121
3.5462499 -0.252 -0.123
3.552 -0.255 -0.122
3.5476668 -0.24733333 -0.12333333
3.5473335 -0.24333334 -0.12433333
3.55 -0.242 -0.121
3.55 -0.23750001 -0.1215
3.546 -0.23199999 -0.121
3.5504999 -0.23249999 -0.125
3.5486667 -0.22766666 -0.12400001
3.5475001 -0.2245 -0.1245
3.5450001 -0.219 -0.123
3.5509999 -0.21866667 -0.122
3.543 -0.214 -0.122
3.5469999 -0.20899999 -0.1225
3.553 -0.206 -0.121
3.5465002 -0.2025 -0.124
3.55 -0.204 -0.121
3.5420001 -0.2 -0.121
3.5409999 -0.19499999 -0.123
3.546 -0.19299999 -0.1215
3.543 -0.18700001 -0.122
3.5455 -0.18799999 -0.123
3.5465002 -0.182 -0.1225
3.5455 -0.17300001 -0.1225
3.5439999 -0.16599999 -0.121
3.54725 -0.169 -0.1225
3.5419998 -0.16249999 -0.124
3.5469999 -0.16166668 -0.12433333
3.5504999 -0.1585 -0.122
3.5439999 -0.153 -0.121
3.5469999 -0.152 -0.1235
3.5420001 -0.146 -0.124
3.5450001 -0.148 -0.124
3.552 -0.147 -0.122
3.5420001 -0.14300001 -0.1235
3.546 -0.145 -0.121
3.5434999 -0.13749999 -0.124
3.5480001 -0.139 -0.125
3.553 -0.13699999 -0.125
3.546 -0.134 -0.124
3.5470002 -0.12966667 -0.12166667
3.5510001 -0.126 -0.125
3.5465002 -0.123 -0.1235
3.55 -0.123 -0.121
3.546 -0.116 -0.121
3.5439999 -0.115 -0.123
3.546 -0.111 -0.122
3.5469999 -0.107 -0.1245
3.552 -0.109 -0.123
3.5420001 -0.103 -0.121
3.5469999 -0.102 -0.122
3.5480001 -0.098999999 -0.123
3.5550001 -0.1 -0.121
3.5450001 -0.092 -0.123
3.549 -0.086000003 -0.121
3.553 -0.087499999 -0.1225
3.5550001 -0.088 -0.123
3.5450001 -0.082000002 -0.125
3.553 -0.081 -0.125
3.559 -0.082000002 -0.124
3.55 -0.078500003 -0.1235
3.559 -0.078999996 -0.1225
3.5550001 -0.074000001 -0.122
3.5510001 -0.068999998 -0.123
3.5510001 -0.064999998 -0.123
3.5579998 -0.063000001 -0.12366667
3.5610001 -0.064999998 -0.121
3.5539999 -0.059 -0.122
3.5555 -0.056000002 -0.1235
3.5539999 -0.050999999 -0.124
3.5569999 -0.055 -0.125
3.556 -0.046499997 -0.122
3.5539999 -0.043499999 -0.122
3.5569999 -0.044 -0.124
3.553 -0.039999999 -0.122
3.5569999 -0.037 -0.125
3.5610001 -0.033 -0.121
3.5569999 -0.027333334 -0.12333333
3.552 -0.023 -0.123
3.5569999 -0.025 -0.125
3.5572 -0.0186 -0.12179999
3.5599999 -0.017999999 -0.123
3.556 -0.015 -0.121
3.5555 -0.0075000003 -0.1225
3.5570002 -0.0044999998 -0.1225
3.5570002 0.00125 -0.1225
3.5569999 0.0060000001 -0.123
3.5580001 0.0115 -0.1225
3.55825 0.017999999 -0.123
3.552 0.026000001 -0.122
3.5585001 0.027000001 -0.124
3.5599999 0.025 -0.123
3.5610001 0.033 -0.124
3.552 0.035 -0.125
3.5580001 0.037 -0.121
3.5610001 0.037 -0.124
3.5606668 0.041999999 -0.12266666
3.5580001 0.046 -0.125
3.549 0.057 -0.122
3.5570002 0.055500001 -0.124
3.5610001 0.055 -0.125
3.552 0.063000001 -0.1235
3.556 0.061499998 -0.1225
3.56075 0.062750004 -0.122
3.5539999 0.07 -0.121
3.559 0.07 -0.122
3.562 0.0735 -0.1225
3.5576668 0.076666668 -0.122
3.559 0.081 -0.123
3.5615001 0.082499996 -0.1235
3.5539999 0.086000003 -0.122
3.5569999 0.088500001 -0.1225
3.5580001 0.093000002 -0.125
3.5599999 0.093000002 -0.123
3.5570002 0.097999997 -0.1225
3.5539999 0.102 -0.123
3.5580001 0.101 -0.121
3.559 0.107 -0.124
3.562 0.107 -0.123
3.553 0.1115 -0.1235
3.5539999 0.116 -0.125
3.5569999 0.116 -0.124
3.5610001 0.118 -0.123
3.553 0.121 -0.123
3.5569999 0.122 -0.123
3.559 0.126 -0.124
3.562 0.126 -0.121
3.5539999 0.13 -0.125
3.5610001 0.139 -0.124
3.5563333 0.14333333 -0.123
3.5610001 0.141 -0.125
3.566 0.141 -0.1225
3.5574999 0.148 -0.122
3.563 0.146 -0.125
3.5639999 0.15000001 -0.125
3.559 0.15700001 -0.122
3.5613334 0.15700001 -0.12266666
3.5665002 0.15800001 -0.123
3.5569999 0.164 -0.123
3.562 0.163 -0.125
3.5650001 0.164 -0.122
3.5639999 0.16599999 -0.121
3.556 0.17199999 -0.1225
3.562 0.17300001 -0.1235
3.5580001 0.175 -0.121
3.5639999 0.178 -0.123
3.5633333 0.182 -0.122
3.563 0.18800001 -0.12333333
3.566 0.192 -0.121
3.5615001 0.19775 -0.1245
3.5550001 0.2 -0.125
3.573 0.20100001 -0.123
3.559 0.208 -0.122
3.5625 0.20649999 -0.124
3.562 0.20999999 -0.124
3.5610001 0.223 -0.125
3.5650001 0.22400001 -0.124
3.5699999 0.2225 -0.123
3.562 0.226 -0.125
3.569 0.227 -0.123
3.5714998 0.22749999 -0.123
3.566 0.23100001 -0.122
3.563 0.237 -0.1225
3.5669999 0.2385 -0.1235
3.566 0.244 -0.123
3.57075 0.24225001 -0.123
3.579 0.241 -0.121
3.559 0.248 -0.124
3.5650001 0.24600001 -0.122
3.5699999 0.249 -0.121
3.563 0.25799999 -0.122
3.5666668 0.25733337 -0.123
3.5710001 0.25799999 -0.121
3.563 0.26249999 -0.122
3.573 0.26300001 -0.121
3.563 0.266 -0.124
3.569 0.26800001 -0.121
3.563 0.271 -0.122
3.569 0.27200001 -0.122
3.5669999 0.278 -0.121
3.5669999 0.28099999 -0.124
3.5716667 0.28199998 -0.12266666
3.566 0.28600001 -0.124
3.5710001 0.28799999 -0.125
3.5710001 0.29499999 -0.1245
3.575 0.292 -0.123
3.5699999 0.303 -0.123
3.5710001 0.30699998 -0.124
3.576 0.30899999 -0.124
3.5680001 0.31200001 -0.121
3.5739999 0.31 -0.124
3.576 0.31 -0.122
3.5710001 0.31799999 -0.121
3.576 0.31799999 -0.124
3.5680001 0.32300001 -0.121
3.572 0.32300001 -0.125
3.5780001 0.322 -0.123
3.5669999 0.32800001 -0.121
3.572 0.32499999 -0.123
3.576 0.32800001 -0.124
3.5725 0.33149999 -0.122
3.5764999 0.33200002 -0.1235
3.5739999 0.34200001 -0.122
3.576 0.34166667 -0.123
3.5679998 0.347 -0.124
3.5739999 0.34799999 -0.124
3.576 0.34599999 -0.121
3.5669999 0.34999999 -0.122
3.5734999 0.352 -0.123
3.575 0.352 -0.122
3.5739999 0.35600001 -0.122
3.576 0.35600001 -0.122
3.5769999 0.36399999 -0.122
3.5715001 0.36650002 -0.123
3.5763333 0.36699998 -0.12266666
3.5680001 0.37400001 -0.125
3.576 0.375 -0.124
3.5739999 0.38299999 -0.123
3.5780001 0.38800001 -0.123
3.573 0.39249998 -0.1245
3.5763333 0.39233336 -0.12433333
3.572 0.398 -0.121
3.5769999 0.403 -0.125
3.573 0.40599999 -0.124
3.5770001 0.40649998 -0.1235
3.572 0.41299999 -0.122
3.5764999 0.412 -0.1225
3.5766666 0.41800001 -0.12333333
3.5769999 0.42399999 -0.124
3.5739999 0.42650002 -0.122
3.5710001 0.43399999 -0.124
3.5774999 0.43150002 -0.124
3.5770001 0.43650001 -0.123
3.5769999 0.442 -0.122
3.5810001 0.44 -0.121
3.5764999 0.44800001 -0.1235
3.576 0.45099998 -0.1225
3.5810001 0.45200002 -0.122
3.5780001 0.45500001 -0.123
3.5799999 0.45899999 -0.125
3.573 0.46200001 -0.125
3.575 0.461 -0.125
3.575 0.47099999 -0.123
3.5799999 0.47266665 -0.123
3.5780001 0.47499999 -0.125
3.5799999 0.477 -0.124
3.5739999 0.47999999 -0.125
3.5769999 0.484 -0.122
3.5780001 0.48899999 -0.125
3.5773335 0.49233332 -0.12433333
3.5739999 0.49900001 -0.121
3.5769999 0.495 -0.124
3.5809999 0.49800003 -0.121
3.5840001 0.50199997 -0.123
3.573 0.50800002 -0.124
3.579 0.509 -0.125
3.592 0.50599998 -0.121
3.523 -0.79699999 -0.118
3.523 -0.79299998 -0.12
3.5215001 -0.7895 -0.1165
3.5250001 -0.78600001 -0.116
3.5220001 -0.78100002 -0.119
3.5280001 -0.78350002 -0.117
3.5239999 -0.77999997 -0.12
3.5225 -0.77349997 -0.1165
3.5265 -0.76849997 -0.1185
3.5275002 -0.76249999 -0.119
3.5179999 -0.75199997 -0.117
3.5209999 -0.75300002 -0.118
3.53 -0.75099999 -0.12
3.52 -0.75 -0.116
3.5309999 -0.74699998 -0.118
3.5239999 -0.74399996 -0.1165
3.527 -0.74349999 -0.1165
3.5250001 -0.736 -0.116
3.5220001 -0.73249996 -0.116
3.527 -0.73150003 -0.11849999
3.526 -0.72899997 -0.117
3.5239999 -0.72299999 -0.116
3.526 -0.72299999 -0.1175
3.5280001 -0.71899998 -0.118
3.5275002 -0.713 -0.117
3.5283334 -0.70833331 -0.11766666
3.53 -0.70599997 -0.12
3.5309999 -0.70200002 -0.116
3.527 -0.69800001 -0.118
3.5309999 -0.69599998 -0.12
3.5239999 -0.69149995 -0.118
3.523 -0.68300003 -0.116
3.526 -0.68300003 -0.117
3.5309999 -0.68300003 -0.118
3.529 -0.676 -0.119
3.5329998 -0.67833328 -0.11933333
3.5280001 -0.66600001 -0.119
3.523 -0.66399997 -0.118
3.527 -0.6645 -0.1185
3.5314999 -0.66350001 -0.117
3.53 -0.65899998 -0.1165
3.5304999 -0.65250003 -0.118
3.5316668 -0.64766669 -0.11733333
3.536 -0.648 -0.116
3.5280001 -0.63800001 -0.118
3.5320001 -0.639 -0.116
3.536 -0.63599998 -0.117
3.5320001 -0.63499999 -0.117
3.527 -0.62800002 -0.117
3.5320001 -0.62599999 -0.117
3.5320001 -0.62199998 -0.118
3.536 -0.62400001 -0.117
3.5309999 -0.62 -0.117
3.5409999 -0.62 -0.116
3.526 -0.61199999 -0.117
3.5339999 -0.61500001 -0.12
3.5350001 -0.61199999 -0.119
3.5310001 -0.60333329 -0.11700001
3.5280001 -0.59799999 -0.116
3.5339999 -0.59899998 -0.116
3.536 -0.59600002 -0.119
3.5366666 -0.59399998 -0.11866667
3.536 -0.58600003 -0.116
3.536 -0.58399999 -0.119
3.54 -0.58200002 -0.118
3.5319998 -0.57800001 -0.118
3.5239999 -0.57200003 -0.116
3.529 -0.57300001 -0.117
3.5409999 -0.57300001 -0.118
3.5380001 -0.56699997 -0.12
3.5320001 -0.56200004 -0.117
3.539 -0.565 -0.116
3.53 -0.551 -0.12
3.5374999 -0.55299997 -0.11849999
3.5339999 -0.55000001 -0.119
3.5250001 -0.54500002 -0.117
3.536 -0.54000002 -0.117
3.539 -0.53899997 -0.116
3.5370002 -0.53250003 -0.118
3.5280001 -0.52700001 -0.117
3.5370002 -0.52849996 -0.1195
3.53 -0.51700002 -0.118
3.5350001 -0.51800001 -0.118
3.5320001 -0.51300001 -0.116
3.5350001 -0.51266664 -0.11733333
3.533 -0.50999999 -0.12
3.5409999 -0.50999999 -0.116
3.5326664 -0.49733332 -0.11633333
3.5369999 -0.5 -0.119
3.533 -0.491 -0.119
3.527 -0.4885 -0.117
3.539 -0.48899999 -0.1165
3.5369999 -0.484 -0.118
3.533 -0.477 -0.116
3.5350001 -0.479 -0.118
3.536 -0.47099999 -0.118
3.5320001 -0.46700001 -0.117
3.5380001 -0.47 -0.117
3.527 -0.465 -0.119
3.5369999 -0.465 -0.119
3.527 -0.458 -0.116
3.5380001 -0.458 -0.117
3.5365 -0.44800001 -0.118
3.529 -0.44349998 -0.1175
3.5350001 -0.44299999 -0.118
3.529 -0.43799999 -0.12
3.5369999 -0.43700001 -0.119
3.5350001 -0.43099999 -0.117
3.5280001 -0.426 -0.117
3.5324998 -0.43000001 -0.1185
3.5376666 -0.428 -0.119
3.5350001 -0.41799998 -0.1195
3.5339999 -0.41100001 -0.117
3.5380001 -0.41299999 -0.117
3.5280001 -0.40200001 -0.119
3.5323334 -0.40333334 -0.11733333
3.5365 -0.4025 -0.117
3.54 -0.39700001 -0.118
3.5339999 -0.39300001 -0.116
3.5369999 -0.39199999 -0.12
3.536 -0.3865 -0.1165
3.543 -0.38600001 -0.116
3.533 -0.382 -0.118
3.54 -0.382 -0.118
3.539 -0.37900001 -0.12
3.543 -0.37599999 -0.117
3.543 -0.37400001 -0.116
3.5380001 -0.36399999 -0.119
3.543 -0.36199999 -0.117
3.53 -0.35800001 -0.118
3.5415001 -0.35750002 -0.118
3.5369999 -0.352 -0.12
3.539 -0.34799999 -0.119
3.54 -0.34599999 -0.12
3.5469999 -0.34599999 -0.119
3.53 -0.34299999 -0.118
3.536 -0.34299999 -0.117
3.54 -0.345 -0.117
3.536 -0.34 -0.117
3.543 -0.336 -0.119
3.5450001 -0.338 -0.119
3.5409999 -0.331 -0.117
3.543 -0.32266667 -0.118
3.5419998 -0.31799999 -0.1175
3.5480001 -0.31099999 -0.119
3.546 -0.308 -0.1165
3.546 -0.30500001 -0.117
3.55 -0.301 -0.117
3.5480001 -0.29899999 -0.118
3.55 -0.29800001 -0.12
3.5439999 -0.29300001 -0.117
3.5469999 -0.28200001 -0.1175
3.5420001 -0.273 -0.119
3.5475001 -0.27450001 -0.1175
3.5439999 -0.26699999 -0.119
3.5480001 -0.26699999 -0.119
3.5480001 -0.264 -0.119
3.5510001 -0.264 -0.117
3.5439999 -0.25849998 -0.1175
3.549 -0.257 -0.118
3.5439999 -0.25400001 -0.118
3.5510001 -0.25400001 -0.119
3.549 -0.25 -0.118
3.5469999 -0.241 -0.118
3.54 -0.237 -0.118
3.5473335 -0.23833334 -0.118
3.549 -0.233 -0.118
3.549 -0.229 -0.118
3.552 -0.227 -0.12
3.5439999 -0.22499999 -0.117
3.552 -0.22400001 -0.117
3.55 -0.2175 -0.117
3.5450001 -0.214 -0.117
3.553 -0.21250001 -0.11849999
3.5550001 -0.207 -0.116
3.55 -0.20100001 -0.119
3.5434999 -0.19150001 -0.119
3.55 -0.192 -0.116
3.55 -0.18700001 -0.12
3.5472503 -0.18324998 -0.11825
3.5465002 -0.1785 -0.1195
3.5450001 -0.17275 -0.118
3.5450001 -0.168 -0.119
3.552 -0.167 -0.118
3.5409999 -0.15700001 -0.118
3.546 -0.15899999 -0.117
3.5420001 -0.152 -0.118
3.5465002 -0.153 -0.117
3.55 -0.153 -0.118
3.546 -0.147 -0.117
3.543 -0.1425 -0.1175
3.5510001 -0.141 -0.117
3.5510001 -0.138 -0.12
3.543 -0.133 -0.117
3.5480001 -0.131 -0.117
3.5510001 -0.131 -0.119
3.549 -0.12899999 -0.117
3.5480001 -0.125 -0.116
3.5510001 -0.125 -0.12
3.5480001 -0.118 -0.12
3.5480001 -0.1085 -0.1185
3.5580001 -0.107 -0.12
3.5439999 -0.101 -0.12
3.5480001 -0.103 -0.12
3.552 -0.105 -0.116
3.5580001 -0.101 -0.118
3.5550001 -0.096000001 -0.12
3.5580001 -0.093500003 -0.117
3.5539999 -0.086999997 -0.119
3.5569999 -0.090000004 -0.12
3.5539999 -0.082000002 -0.12
3.556 -0.082000002 -0.119
3.559 -0.077 -0.116
3.5599999 -0.075999998 -0.118
3.552 -0.069499999 -0.11825
3.5555 -0.066500001 -0.1175
3.556 -0.063000001 -0.118
3.5563333 -0.057999998 -0.11833334
3.556 -0.052000001 -0.116
3.5573332 -0.047999997 -0.11766666
3.5550001 -0.043000001 -0.118
3.5550001 -0.037 -0.12
3.5569999 -0.028000001 -0.119
3.5580001 -0.022500001 -0.1195
3.553 -0.02 -0.117
3.556 -0.02 -0.119
3.5599999 -0.018999999 -0.119
3.5550001 -0.014 -0.119
3.5599999 -0.011 -0.116
3.5565 -0.0080000004 -0.11849999
3.5599999 -0.0060000001 -0.12
3.5580001 -0.0049999999 -0.119
3.5565 0.003 -0.12
3.5599999 0 -0.12
3.5569999 0.0049999999 -0.117
3.5539999 0.013 -0.1195
3.5580001 0.012 -0.118
3.5525 0.017999999 -0.118
3.559 0.016000001 -0.12
3.559 0.022 -0.119
3.5539999 0.025 -0.118
3.5599999 0.026999999 -0.117
3.5569999 0.032000002 -0.117
3.5599999 0.033 -0.118
3.556 0.039000001 -0.118
3.5610001 0.037 -0.1165
3.552 0.041000001 -0.12
3.5580001 0.045000002 -0.116
3.5539999 0.052999999 -0.118
3.5610001 0.050000001 -0.12
3.5580001 0.059 -0.119
3.5599999 0.057999998 -0.116
3.563 0.061999999 -0.119
3.549 0.064999998 -0.118
3.5539999 0.066 -0.117
3.5599999 0.067000002 -0.118
3.552 0.078000002 -0.117
3.556 0.075000003 -0.119
3.5599999 0.077 -0.119
3.5569999 0.083999999 -0.12
3.549 0.089000002 -0.12
3.556 0.086500004 -0.118
3.5580001 0.093000002 -0.12
3.5539999 0.097499996 -0.1185
3.5626667 0.097000003 -0.11866667
3.5539999 0.104 -0.12
3.5580001 0.103 -0.119
3.562 0.1 -0.116
3.5580001 0.107 -0.117
3.5599999 0.11 -0.118
3.5539999 0.119 -0.116
3.563 0.115 -0.118
3.5580001 0.12 -0.118
3.562 0.121 -0.118
3.5570002 0.1275 -0.118
3.559 0.13500001 -0.12
3.5610001 0.13500001 -0.117
3.5539999 0.14300001 -0.119
3.5580001 0.14 -0.117
3.562 0.14399999 -0.118
3.553 0.147 -0.12
3.5636666 0.15166667 -0.11766666
3.562 0.15799999 -0.12
3.5650001 0.15700001 -0.118
3.563 0.164 -0.117
3.5615001 0.168 -0.119
3.562 0.17 -0.116
3.562 0.17750001 -0.118
3.556 0.18149999 -0.1185
3.5615001 0.182 -0.1175
3.5665002 0.18149999 -0.1175
3.5639999 0.185 -0.12
3.566 0.189 -0.117
3.5550001 0.193 -0.118
3.562 0.197 -0.118
3.562 0.20299999 -0.1165
3.566 0.2035 -0.1175
3.5599999 0.205 -0.12
3.563 0.20999999 -0.117
3.5739999 0.212 -0.116
3.559 0.219 -0.119
3.5650001 0.215 -0.12
3.5699999 0.21799999 -0.117
3.5710001 0.223 -0.118
3.563 0.228 -0.12
3.562 0.23100001 -0.116
3.566 0.23100001 -0.117
3.5739999 0.233 -0.12
3.5669999 0.23899999 -0.118
3.5639999 0.23999999 -0.118
3.5675001 0.24149999 -0.119
3.5699999 0.249 -0.119
3.5625 0.25199997 -0.1175
3.5580001 0.26499999 -0.12
3.5675001 0.26200002 -0.118
3.5710001 0.26499999 -0.12
3.563 0.266 -0.119
3.569 0.27200001 -0.116
3.573 0.271 -0.117
3.5669999 0.278 -0.119
3.5699999 0.27900001 -0.116
3.5715001 0.287 -0.1165
3.576 0.28650001 -0.119
3.5669999 0.28999999 -0.12
3.573 0.294 -0.116
3.575 0.294 -0.118
3.5670002 0.303 -0.118
3.575 0.301 -0.117
3.572 0.30650002 -0.117
3.5699999 0.31799999 -0.117
3.576 0.31650001 -0.11849999
3.573 0.32249999 -0.119
3.575 0.31999999 -0.116
3.5680001 0.32699999 -0.119
3.5710001 0.32600001 -0.117
3.576 0.32499999 -0.116
3.573 0.33199999 -0.12
3.5769999 0.333 -0.119
3.5680001 0.338 -0.119
3.5699999 0.33899999 -0.116
3.573 0.345 -0.116
3.576 0.34666666 -0.119
3.5714998 0.3515 -0.119
3.5680001 0.35499999 -0.116
3.572 0.35800001 -0.117
3.573 0.36300001 -0.12
3.5769999 0.36199999 -0.116
3.573 0.36899999 -0.118
3.575 0.368 -0.117
3.573 0.37633333 -0.11866667
3.576 0.375 -0.116
3.572 0.389 -0.119
3.5770001 0.38699999 -0.1175
3.573 0.39174998 -0.11725
3.573 0.398 -0.116
3.5725 0.4025 -0.11849999
3.5719998 0.40666667 -0.11766666
3.5764999 0.40649998 -0.11849999
3.569 0.414 -0.12
3.5710001 0.41 -0.12
3.5780001 0.414 -0.117
3.572 0.419 -0.116
3.5755 0.41750002 -0.1185
3.5769999 0.42399999 -0.119
3.5710001 0.428 -0.119
3.5763333 0.42899999 -0.11833333
3.5739999 0.43200001 -0.12
3.573 0.435 -0.116
3.5756667 0.43799999 -0.11833333
3.5769999 0.44600001 -0.118
3.5769999 0.45249999 -0.1175
3.576 0.458 -0.117
3.576 0.461 -0.12
3.582 0.461 -0.1195
3.5825 0.46700001 -0.1165
3.575 0.477 -0.118
3.5799999 0.47600001 -0.1185
3.573 0.47999999 -0.116
3.5780001 0.48100001 -0.1165
3.582 0.48699999 -0.118
3.5780001 0.493 -0.12
3.5810001 0.4905 -0.118
3.585 0.49000001 -0.12
3.5710001 0.49900001 -0.118
3.5809999 0.4955 -0.1175
3.5815001 0.50099999 -0.118
3.582 0.50800002 -0.119
3.5770001 0.51250005 -0.119
3.5799999 0.514 -0.12
3.586 0.51300001 -0.1185
3.527 -0.79900002 -0.112
3.523 -0.79299998 -0.114
3.5190001 -0.787 -0.112
3.523 -0.78600001 -0.113
3.5275002 -0.78400004 -0.1145
3.5190001 -0.77899998 -0.111
